# 3D point list with one line of data per point:
#   POINT3D_ID, X, Y, Z, R, G, B, ERROR, TRACK[] as (IMAGE_ID, POINT2D_IDX)
# Number of points: 371, mean track length: 5.9051682106289611
4833 -1.2124007697982511 -0.79997585836118978 4.8627372893571739 72 51 39 0.73734651011107244 31 29 44 297 35 470 42 213
4832 -1.1780297549682082 2.0590265969704205 4.9275587569470254 51 1 0 1.3824545644155222 7 494 1 120 9 646 37 307 25 552 24 488 36 352 30 499
4831 -1.589718348777871 2.0791635027776056 4.7983426527424422 40 13 12 1.6167299378334248 24 600 44 454 8 699 26 673 7 793 51 728 1 367 69 757 9 751 9 836 33 799 6 792 68 713 5 1063 69 917 70 739 46 378 32 673 49 487 45 758 50 522 25 703 44 582 3 932 38 887 37 634 39 743 39 840 36 887 40 852 34 543 34 649 22 641 20 488
4830 -0.91943270758616968 1.9890486287179929 4.9715847502373984 50 12 12 1.5318111454294501 8 749 33 696 7 772 6 600 68 650 5 802 29 645 10 597 10 690 45 696 46 369 49 480 37 779 26 148 33 176 51 210 7 171 69 229 58 534 6 487 4 298 9 456 2 327 39 570 30 242 36 706 36 785 40 579 35 740
4829 -0.28563838001107295 2.0222830642257188 5.0795570822018403 9 6 6 0.98523068114757439 1 441 51 621 37 877 54 1023 55 1004 56 957 57 972 38 802 39 898 40 719 39 602 35 666
4828 -2.6073153879547974 1.049589435772087 5.2642694395503744 0 0 0 2.4315261487978734 55 811 56 915
4827 -0.47280286294630081 2.0982478470826047 5.0140098606664454 16 15 17 1.109606778497809 54 1201 37 1165 38 1192 39 1108
4826 -0.31781492400982797 2.0607291925758036 5.031007844618598 22 11 21 0.60076845427266923 30 976 37 1162 38 1189 39 1110 36 1023
4825 -1.3849942664596464 -0.12261947226527416 4.7733167169427837 164 113 84 1.5497221176540319 37 1149 38 1175 39 1092 36 1016 40 980 35 955 42 481 41 447
4823 -0.27929297352537086 1.8835966703808598 5.2085496881346485 0 0 0 1.3932164057386802 10 776 11 699
4822 -0.90198042372768239 2.4480517746640738 4.9188035522925659 194 192 195 1.0508764702377587 53 1110 37 1092
4821 -1.0623289188518665 2.45062485743387 4.9001837551801195 194 184 192 0.58895692904142705 29 896 37 1087 39 983
4818 -1.2475762727251034 2.4695607052324577 4.8366943556855722 190 185 189 0.14476675988245308 29 773 37 1033
4817 -1.3491558632132508 2.5477694586470085 4.8818788645076605 188 186 189 0.86820912193519295 59 1177 37 1031
4816 -0.5679732502700936 2.3451848083789235 4.9458930536586889 0 0 0 0.11399657615213626 28 871 59 1123
4814 -0.44764940082087806 2.4009879906238707 4.978769018752975 205 203 204 0.83689089015647455 29 721 37 972
4813 -0.49889801750928758 2.406197828905468 4.9683640699849487 191 185 187 1.0892077414758996 29 775 37 971
4812 -1.0318356063768237 2.4061524326686659 4.9125504278641019 23 17 21 0.54858073754035652 57 991 37 952 38 950
4811 -1.0325679875932021 2.4059110098503167 4.9121339405562789 23 17 21 0.3834863395702664 56 975 37 951 38 949
4810 -0.98923002731383469 2.3716125174494085 4.9325330741334392 183 184 178 0.37079231889204967 29 766 37 944 38 942 39 904
4809 -0.33423564430417696 2.0114439236408712 5.3329238936504337 0 0 0 0.63671602987957476 10 731 49 564
4805 -0.33219204322563317 2.0061916193962483 5.0577613896366698 33 6 2 0.60731892598101977 37 875 38 936 40 797
4804 -0.91845568613296957 2.063159752518446 4.977355931405719 0 0 0 0.21150800247407689 49 490 50 525
4800 -0.21880104047861723 2.2027106643809535 5.0840904166309171 50 1 5 0.73949900291698478 9 666 37 673 38 696
4796 -1.1329552666021361 2.3590135618226289 4.9045642216741614 204 200 201 1.4115563469356815 33 358 37 445
4795 -1.3308371165544031 2.2571101809207832 4.8459939083865269 116 41 43 1.7150850608003034 27 488 37 420 36 429
4794 -1.2683530658436399 2.2674889680847983 4.8652939117382195 39 1 7 0.56992369214278837 53 709 37 418 26 266 55 602 58 355
4793 -1.4358208725688693 2.2283762673848466 4.8024257536575563 117 53 54 1.5098120221462623 55 739 37 403
4792 -1.8802042742758687 2.1961524177896599 4.7761004236088569 115 65 76 1.5556858484709777 32 378 50 373 37 351 36 598
4791 -0.43749045479652804 2.0158709268510115 5.0029229775532267 0 0 0 2.2473360592885223 11 477 55 513
4790 -0.52231723655389872 2.0294759037429007 5.0104103150298931 46 1 0 0.40725801217154994 46 197 37 341 39 606 38 405 36 379 35 570 29 245 34 312
4788 -0.57067943986843284 1.988645794869083 5.0095951333498565 131 55 65 0.48043434472414703 51 201 37 322
4784 -0.30788884107478659 1.8997631014477969 5.1276231290139034 57 2 9 0.96073340384859562 49 162 37 284 38 321
4781 -1.3506488706954043 2.5894955597740732 7.3710676907673571 142 97 64 1.8067175652338741 69 755 37 243
4780 -1.0507430393589154 -0.29237422332928925 4.6795322707761438 209 155 119 1.6079255635130154 58 637 37 209 36 236 38 239 40 267 39 519 35 626 42 243 41 228
4771 -0.82545576645332419 2.3580115406151294 4.9403479813207936 141 140 137 1.7020589157598569 8 817 26 718 7 975 1 542 53 1012 54 1037 52 944
4770 -1.1426882898164756 0.8351781658096723 5.0664520838581408 132 88 63 2.1472672447278134 8 966 15 514 26 863 33 944 7 1103 1 677 6 912 51 1029 58 1065 68 927 69 947 70 819 30 888 29 857 28 894 27 815 9 908 10 774 45 830 46 428 47 550 67 613 48 468 25 785 66 536 65 542 55 1158 24 730 56 1107 57 1077 5 1166 64 453 23 773 63 492 43 221
4769 -0.88834607307596358 2.2284319615658728 4.9382782426067209 26 10 6 0.93590118920394927 27 315 54 596 52 342 53 324
4768 -1.3586721494704661 -0.28471051327837754 4.7031370807209658 71 64 63 0.64849756701634698 65 438 66 438 67 505 64 370 52 699
4767 -1.2458778548395819 -0.1879334629824044 4.6141358727464485 185 139 115 1.0497450909784551 47 585 48 488 66 545 62 444 64 468
4766 -0.76807016797212779 -0.7157868861197777 4.9847363026104299 82 40 16 1.431496206064176 31 39 46 145 44 306 32 142 12 275 63 46 45 135 44 105 22 95 21 81 16 413 17 439 19 509 18 541
4765 -0.76471966999773011 -0.73681840449648139 4.9562698356278085 132 105 90 2.0733625057576792 31 36 25 511 44 408 28 90 27 61 48 215 25 391 24 441 64 189 12 267 14 474
4764 -1.1720867113915951 2.0350896308576636 4.9113559700347178 175 62 67 1.7286087905675493 45 754 50 560 52 858 25 704 11 618 53 963 24 641 23 683 59 1036 60 653
4760 -2.6222739243212345 1.1554924467566157 5.3141779474677415 0 0 0 0.15786863861014466 1 609 15 590
4754 -1.822503415291969 0.74723051217063696 5.2888981385577098 22 22 22 1.6640567204193613 29 712 49 427 65 410
4753 -1.0577636932095891 0.10569397715130321 4.5855641074697369 157 113 88 1.187873207724383 45 777 67 544 23 678 8 461 33 442 30 459 27 433 9 612 10 504 45 493 31 71 46 66 32 479 50 113 47 367 67 206 48 145 25 534 11 582 66 299 44 343 65 353 24 471 64 234 23 521 63 246 12 563 39 535 38 631 37 582
4751 -0.87802793193449924 -1.3413613278147389 5.9806927135496029 253 253 253 2.1090600746511523 9 571 62 285
4749 -0.7700436187663362 -0.75602616524410271 5.0449022590335142 47 32 26 1.8880616220033908 10 554 63 44 62 250 28 430 45 579 31 162 46 139 47 343 66 258 50 29 65 61 64 276
4747 -1.483560063231808 -0.60133158337329751 4.8180367012835656 117 84 62 1.3940922663416282 63 498 64 472 27 918 10 843 66 555 65 564 62 452 51 1106
4746 -1.0804723111433647 0.18127784061918331 4.5962121784371099 132 81 58 1.3878407240285258 5 180 62 270 27 435 30 460 67 345 28 194 47 299 25 537 64 130
4745 -0.79461214762484778 -0.31775712427684072 4.7922424379558981 46 18 8 1.455934250647184 8 584 26 604 47 359 30 144 29 526 27 528 45 467 46 160 32 209 67 403 64 94 22 502 21 389 20 358 16 448 19 536 18 463
4744 -1.8059546833469355 -0.33040807194976962 5.1384667113780091 194 194 191 1.9247928986486802 46 306 45 735 32 689 47 513 67 503 31 369 49 502 50 503 67 563 48 401 66 494 65 471 65 495 64 334 62 391 63 416 62 369
4743 -1.3940263912714868 -0.2598096302590695 4.6671451191529689 120 81 75 1.5585308530464281 63 348 64 331 8 447 26 536 33 590 7 642 15 184 51 758 58 733 6 463 30 446 28 597 27 532 31 176 48 235 62 347 11 441
4742 -1.1246202495138264 -0.89161216320404679 4.9268143121736294 114 81 61 1.5692868112851437 45 720 31 364 46 292 32 630 44 620 31 403 67 434 48 394 64 269 36 824 35 770
4741 -1.2981072510829346 -0.25650999775540145 4.6672895347687025 155 119 103 0.94362282009667486 29 117 44 328 62 215 32 226 67 171 66 277
4740 -1.5007888614662346 -0.70491297646090967 4.8581690301628981 64 38 26 2.1814382309327871 7 628 51 448 6 315 45 438 66 78 65 69 62 46 63 47 64 57
4739 -1.2863123996649399 -0.84721818293093254 5.5631951541572322 0 0 0 2.3273223930742093 59 1304 63 525 64 496 57 1215 25 869
4738 -1.2227177331579715 -0.77100740265625722 5.3146912439797509 191 137 103 1.5358280570210809 1 801 63 524 62 477
4735 -0.57273898745153862 1.0669640794540645 6.6018021122255224 27 27 27 2.7281860828892208 64 495 62 474
4734 -1.1226636816663476 1.0530793773594553 5.3127871125763582 178 133 100 1.0178021235684367 44 740 61 400
4732 -1.0724203226682261 -0.67603583538950052 4.9065953528509763 189 135 101 1.6079125437121295 63 518 64 492 62 469
4731 -0.80490077909294921 -0.10877302429216826 4.8105645699856261 197 142 111 1.2193377744043887 10 854 50 687 61 396
4729 -0.72349091532787413 0.43456816956503352 5.345591169850068 255 255 255 1.6018833385567315 48 482 62 458
4723 -0.89333668497981067 0.5714491545727669 5.7852998821705341 0 0 0 0.39669306731414744 23 800 24 765
4721 -1.1003050124395226 -0.13754549422542886 4.5745661680494232 166 111 80 0.79979206815500659 11 688 50 603 62 439
4719 -0.88923408633247503 -0.45185651990506442 4.8595491052810926 0 0 0 0.44195041286815451 52 962 53 1036
4718 -1.0849216308359593 0.19657073298263214 4.6815428885086741 0 0 0 1.0839972292797999 53 914 59 986 60 611
4715 -2.2038388063893177 0.79035390093018387 5.9424751556149866 25 23 24 0.063299980692854724 49 553 62 404
4711 -0.74845397418674009 0.70142308888725025 5.4664033726517802 23 15 12 1.5877772217035278 1 239 50 320 62 359
4706 -1.0006701756775773 1.1969661319885421 5.2560432044984626 0 0 0 2.2714391731634596 12 513 64 357
4705 -1.7585437629368044 0.78170250021862364 5.4214779848485088 20 9 7 1.3691654834409466 11 519 48 351 62 321 28 690
4701 -0.97555738706607009 -1.1234164060720355 4.96081476394669 40 33 27 1.2096197704507969 50 261 62 246
4699 -0.97876336188805835 1.1801859787558662 5.6289191262715148 186 155 135 0.18734252878992977 63 183 62 241
4696 -1.0147583332993211 0.21490561115827725 4.6548461606316911 88 26 18 0.86986549539095614 10 145 25 218 62 233 67 214 28 198 49 126 13 418 12 154
4695 -1.1270498918485952 0.035812574765623252 4.4579752322248627 124 70 44 1.374236277148114 50 96 62 224
4693 -1.8552252426383358 -0.27014855739197396 5.2814705061855003 117 57 38 0.97574035562415384 63 124 62 120 61 75
4692 -0.86628045665208486 -0.28808991205929002 4.7103869707423547 38 19 18 1.6239482992436565 8 80 62 100
4690 -0.71410257829103918 -0.4645104563835839 4.8647983825260548 104 57 31 1.3360768126658653 23 168 62 85 22 132 20 134
4689 -0.94452112173446046 -0.85324348067886202 4.8829604354359821 108 79 67 0.67552959410922331 24 571 62 27
4688 -1.1111369866209475 -0.83160825755950707 4.7792179779689254 52 23 3 1.1710340381009281 50 19 62 22
4685 -1.0359077299696977 0.21608428181096923 4.6576920134908661 101 27 25 1.7664406643512989 27 154 8 124 29 154 28 610 30 467 47 305 66 174 65 297 64 136 63 250 12 155 27 153 64 135 49 267 62 272 65 172
4684 -1.4351422698301026 2.0488437675574529 4.8349545364093665 146 69 71 1.130741567549618 33 231 10 427 23 472 49 186 44 378 34 294
4683 -0.69191966276725769 -0.17770092067448948 4.8609124667574894 159 109 76 1.4953302011275831 28 463 45 482 12 413 30 161 67 184 65 140 13 498 19 548
4679 -1.0399304627278274 -1.0450094298459092 5.1470343323369825 27 23 21 2.3960140031987867 11 764 24 787 12 725
4678 -0.82236260654759175 0.086492085081019729 5.7159218600144639 255 255 255 2.6692324187837091 24 774 12 714
4676 -1.2603313209054283 -1.0223329977747428 6.6589703264149094 255 255 255 1.588919289464044 5 1090 12 685
4675 -0.84462846216789345 1.910241980790919 5.0114688498282556 176 54 66 1.442778630398923 23 760 24 707 22 772 21 740 16 766 20 695 17 769 19 853 18 777
4674 -0.86108573106871511 1.9149479161049423 5.0303218774502509 176 54 66 1.3374877468981672 23 759 24 706 22 771 21 739
4673 -1.6675503697172427 2.0088842516061387 4.7937303195827559 21 20 21 1.0157035969338202 10 777 23 723 12 664 22 685 60 688 21 733
4672 0.14816513562280376 1.0669989549484569 5.5584496571596134 0 0 0 0.84524124904713382 65 514 67 614 66 528
4669 -0.93025694934226499 0.65694622742790287 5.895255361663013 25 17 16 1.2116628433772165 23 680 22 675 25 660
4668 -0.8995627014695633 -0.48642982713530813 4.7188711924225331 0 0 0 0.8371310379286836 50 531 64 409
4666 -0.98044327563078493 0.6357642648409525 5.9485791619778476 18 7 6 1.129310712354987 24 595 12 596
4665 -0.82873725185512848 -0.92639080274804075 4.9242471985105967 19 17 18 1.5038668562573327 23 656 12 575 22 656 13 658 21 705 20 673
4662 -0.81003885198969472 -0.79436774470558658 5.9499246547284423 16 12 13 1.2872283999853509 23 565 12 549
4661 -0.77406771844437716 -0.77901920848089345 5.077005821327802 43 30 21 1.1293019761818142 23 619 12 542 13 624 20 531 19 646 18 625
4658 -0.939122828686759 1.1708665952010688 5.2589456628515112 30 12 1 0.54099552319774624 25 610 12 511
4657 -0.97118697334387294 0.0023264736097631218 4.5671978275144074 77 24 6 0.85841597706681427 23 583 12 485 22 573 13 609 21 188
4656 -0.6464339340570866 -0.13489824022758265 5.6084667858205215 205 146 115 1.3067164684775796 11 443 12 484
4655 -0.74747361147556435 -0.75844450222840487 5.1405785502710311 40 32 23 1.1793962723423101 11 313 25 514 12 460 13 465
4651 -2.4196161313146085 1.0841249451201138 5.2187104023479822 52 52 52 0.94109009092667739 24 548 12 423
4649 -0.78629562193506208 -0.3279078195068979 4.7889787064858469 185 143 118 1.3603167252342918 48 105 63 230 12 400 22 152 50 73 21 140 30 142 13 391 19 247 18 179
4648 -1.0985313298656925 -0.7313901031182386 4.6641900423511586 115 64 45 0.58268642228544687 23 386 24 326 12 385 25 390
4647 -1.1247411616772736 -0.75865156057628702 4.7303365990013777 135 84 55 1.2793859493530098 23 385 12 384 24 78
4645 -1.2812107985709087 -0.72286304407456958 4.7227573168127748 174 133 108 0.71721914669449693 12 273 62 338
4644 -1.1220920535462171 -0.70373119415385421 4.6693555881806263 167 110 81 0.73788590531385057 12 270 13 358 21 366
4640 -0.88490755895525752 1.9287651993930235 5.0274432602405641 41 3 4 1.8294686273259952 49 159 12 212 50 335 22 469
4636 -1.7227071661829196 2.0232813628760522 4.8048364590675874 31 12 13 0.72863187599220258 58 286 12 195
4635 -1.0862282353905028 0.0068660800290391965 4.5900586691457752 147 97 73 1.7908420027211598 11 133 23 231 12 151
4633 -0.87981738463185433 -0.44277640319478095 4.7525157254861128 81 45 32 0.51652134038560416 24 146 12 112 13 199
4631 -0.68896582693890418 0.45531716648186688 4.9717713703716369 255 255 251 3.2595161333983231 1 721 63 490
4630 -0.73112473579212112 0.70454998926089119 5.6282856297849291 18 7 2 1.7253379806372779 9 798 63 369
4629 -0.76883035983900239 -0.89065123808291602 5.0271165903885064 52 48 47 0.2921698868567818 64 317 63 324
4628 -0.65947890201187609 -0.078508430414332323 5.3571859558015893 201 150 130 0.090446778186596299 10 379 63 148
4626 -0.80143693407603966 -0.2600107043612826 4.8196993965197459 176 129 109 1.5847876655304782 8 449 10 492 67 458 64 219 9 409 23 576 63 288 27 128 28 164 46 58 50 87 12 480 13 490 22 414 14 495 16 571
4625 -1.4336669607959664 -0.43722827482677779 4.6549414306081918 90 56 36 1.9937000022255722 9 591 10 101 33 586 7 418 15 34 58 92 68 77 26 57 5 759 69 101 70 103 4 510 30 138 8 724 15 305 30 663 28 589 1 408 45 729 46 301 32 691 49 73 50 386 66 379 44 496 2 128 3 149 65 386 29 394 15 36 8 442 63 283
4623 -1.7606076015874486 -0.059765271966637584 5.1284730211919358 115 71 54 2.5402333814047009 29 947 27 891 28 971 45 853 31 440 46 445 47 563 48 466 63 486 49 612 67 642 66 559 65 567
4622 -0.65176382955815182 -0.21624771824138325 5.4475577270171724 195 145 115 1.229916528010347 30 160 29 125 28 180 27 425 10 499 49 108 50 301 47 167 48 130 25 595 63 241 66 144 67 182 65 141 64 106 62 266
4621 -0.68204878304629024 -0.63604528548091133 5.1690678391140823 53 37 29 1.1155518144525296 30 116 29 74 49 49 28 433 48 73 11 319 47 263 24 345 63 214 27 518 45 584 64 283
4620 -1.1127131010026006 0.2206605676081628 4.6184002697629518 77 27 19 2.1284031804987258 7 444 25 221 23 239 63 160 67 349 48 152
4617 -1.2766204513523189 1.0533830393978667 5.0901251445447713 0 0 0 2.2800104175720328 27 938 29 1005 44 737
4616 -1.4255860545576098 0.56786931688759235 5.2707627996689892 115 77 56 1.6180959854073278 9 1015 64 493 63 519
4615 -1.4965129392001182 0.51354805835606632 5.1829514154028722 0 0 0 1.6970747407677784 1 780 64 486 63 509
4614 -0.60023887726720193 -0.022824950591538846 4.8993434388861647 167 123 98 1.0912679943641268 1 760 63 507
4612 -1.0870448578254666 -0.48216410038236401 4.6539844522384088 202 164 145 1.5930462395741836 8 1049 64 474 63 500
4610 -1.7304917161990001 0.11729629609095808 4.987644999576287 255 255 255 2.5823282036416297 28 992 63 488
4606 -1.735401434794924 0.090994244987766926 5.058221441665709 252 255 255 2.0404282333868773 30 828 63 465 10 720
4604 -0.68507182216144002 0.73917800824963842 5.9158932160971656 31 27 28 2.8911520589911763 66 508 63 452
4603 -1.6835311931378256 -0.7911609527020016 4.8890410449889314 255 255 255 2.1209434382392529 10 744 62 364
4602 -1.2057976510790982 -1.1605944872956415 5.1382309267119073 25 22 17 1.084907950598657 64 404 63 426 62 382
4601 -0.81541720075928581 0.65391474924434101 5.789980409417228 19 10 12 1.9311855287748976 11 587 64 353 21 685
4599 -0.8734204920604105 -0.8875314052398664 4.9180382292662665 45 39 39 0.78129507932967124 50 443 63 388 62 287
4596 -2.1777048139311552 0.8705999028061191 5.1657042278515739 0 0 0 0.13261487758937895 26 617 31 279
4594 -0.60261032828553351 -0.73109826373114561 5.3679227749993688 40 34 34 0.056422279573423453 65 429 63 332
4592 -0.76883035983900205 -0.89065123808291569 5.0271165903885047 52 48 47 0.2921698868567853 64 318 63 323
4589 -0.64931628151639242 -0.64827694073501596 5.0295723670798367 45 43 43 0.35142399310219963 26 46 63 275
4585 -0.84015279402078469 -0.35616151903137139 4.8117380370241474 191 155 123 1.4253015283245469 50 70 63 229 62 262
4584 -0.97364566495871607 -0.47907822448983606 4.6754901385693186 211 165 142 0.28012445090015592 64 199 63 216 62 57
4583 -0.96180849952726688 1.3304534438521709 5.260413519738881 15 15 15 0.49477413132952619 66 217 63 190
4581 -0.92663836231259877 0.19549803283815739 4.638996361098247 129 76 53 1.2472776225608331 25 216 63 158
4579 -1.3110464013532885 -0.097375585110824378 5.0483971710149582 182 122 98 0.38545942307217329 64 302 63 133
4578 -0.96970209001083862 -0.018887590836520522 4.6330439491322277 164 118 100 0.68848993706329076 27 144 28 188 63 132
4577 -0.94433991121834893 -0.43470659637296927 4.6697011430138149 159 120 99 0.97647076645518605 50 57 63 85 12 109
4575 -1.1425115892585562 -0.71774918865551662 4.6522927092968587 168 117 88 1.7667933349553109 27 57 63 38 12 61 62 38
4574 -1.0541180553397886 -0.74729200502511217 4.5860375995624008 154 109 88 2.4989535310738376 45 123 63 30 62 28
4573 -1.0559179495788198 -0.75505951888104361 4.5518053238961675 68 29 14 1.4679107915407053 45 578 63 29
4572 -1.1137674521700092 -1.243735377955588 5.955640763808991 55 49 49 2.2130967254383158 67 11 63 22
4570 -1.3887920422158508 0.60912895738591211 4.6736836603761569 255 255 255 1.0717270675609853 24 790 23 819
4569 -1.0015565426868018 0.74509369728161301 4.1386462057315256 255 255 255 2.6315350967668114 24 673 23 754
4567 -1.2021169641963851 2.027279218175317 4.9220421676998161 62 11 8 1.4447727371387475 51 229 58 235 28 274 27 216 9 211 30 253 10 419 11 386 23 476 52 504 25 468 12 367 22 305 20 412 16 345 19 410 19 602 18 502
4565 -0.86531917685086801 0.052196893684550993 4.7251832537806431 132 92 70 0.53443076969179992 27 151 45 491 64 127 11 343 23 436 30 458 44 170 63 153 12 322 22 214 13 415 16 263 19 318 18 248
4562 -1.3520153100355821 0.20193694549952385 4.8385245852416219 108 67 49 0.94387756268190703 24 795 23 822
4558 -0.72146710704653882 -1.0030581863983232 5.6670819334750826 255 255 255 2.1234917987376223 24 759 25 831 13 754 22 814
4556 -0.82582616718281199 -0.35085473004525697 4.7678613741489366 0 0 0 1.4897975731821971 33 997 51 1018 26 912
4555 -1.8120810969430647 1.9956427449651579 4.8106029175880396 25 21 26 1.9867346380735871 24 731 25 787 23 775 22 768 20 659 21 731
4554 -0.77152731711875666 -0.40498014583372999 5.847067673107226 21 23 22 2.4429416761573521 23 769 22 806 13 751
4553 -1.675019436868 2.1961435116873629 4.8260758584764387 0 0 0 0.78866932810185919 11 680 24 714
4551 -1.7185162489283319 1.9447394997209304 4.7923813738707093 169 43 47 0.80193753330530326 24 703 23 722 12 662 38 1010 36 884 22 727
4550 -0.73337174806088679 -0.43398874247842811 4.8693380283215744 178 131 103 1.1900989608531676 11 631 23 693 62 366
4549 -0.70203538957082734 -0.93142686169286482 5.5568220739669547 25 23 24 1.9275459050564498 11 563 23 688 22 741 13 711
4548 -0.79739684643406061 0.67871143939757639 5.7553763580550106 21 18 13 2.0766584704797855 46 253 23 681
4546 -0.66166138027528643 -0.002882536106556169 5.3682859754344125 196 142 106 1.5150504226435615 50 408 23 676 61 287
4545 -0.71259678327983378 -0.3813207426923742 5.7465112344418552 25 26 20 1.9506012567791751 24 583 23 667
4543 -1.3140275693058192 -0.88108370417450532 4.6505297688315448 32 24 21 1.7805393855919258 24 648 23 657
4542 -0.26708419501346115 1.9191775412865266 5.2619123897383107 177 52 82 1.3222567153228895 66 482 23 653
4538 -0.4800592351122277 2.1222752320425649 12.961792732197113 0 0 0 1.4343345549213506 15 273 26 620
4536 -0.69926011800015919 -0.24573546327130896 5.573939331625863 195 139 116 1.6961590839688416 11 507 24 526 23 580 12 556 22 570 13 605 21 576 20 544 14 546 16 643 17 647 19 741 18 652
4534 -0.67365273634069256 -0.58747952328799224 5.7534071573626386 18 12 14 2.1658833125147847 24 453 23 569
4532 -0.64135806549872043 -0.78465284959265746 5.3361732601541529 19 17 18 0.76451512337320315 23 561 13 596 22 621 14 569
4530 -1.857384540102653 2.0006057828876016 4.8732329613165666 43 7 2 1.2396942542336296 11 528 23 532
4529 -2.212529249553481 1.9186457434398438 4.8460100358951319 41 39 42 1.1905606588278792 24 554 23 530
4528 -1.0288593644232704 0.22591805419883043 4.6458030439860627 191 111 110 1.2725391347245665 50 312 23 523 22 579
4527 -1.0608804149180382 0.21772519102401849 4.6617471524372398 0 0 0 0.62317061285245978 47 303 66 302
4526 -0.94910881371352762 -0.26499456078312761 4.7146425608009324 212 159 128 0.41744538517870144 25 433 23 511 12 553
4525 -0.95132371273071481 -0.26405034408984412 4.7175285490313081 212 159 128 1.1146216447365773 24 461 25 434 23 510 13 559
4524 -0.64685353942542811 -0.37674242966567584 5.2378244919544148 79 53 32 0.84680957902480858 25 423 23 507 20 461
4523 -0.72204724953540933 -0.76128275594417871 5.1617033788104916 54 49 47 0.24954924508989179 25 577 23 499
4520 -1.899468200813607 0.81574798853486363 5.4373204294804225 44 45 47 1.6438557329679004 25 447 12 167
4519 -1.1896565102562304 0.23120145569423703 4.6735381122233699 65 16 9 0.37144213633362061 24 387 23 443 22 435
4517 -0.97232475744064417 0.014678596930872347 4.5725489882974371 125 84 68 1.224384500258179 25 203 23 433 22 203 13 506
4516 -0.75768941918344246 -0.29042791960977887 4.8258549846308743 108 60 49 0.73131747051833884 24 370 23 415 22 164 21 393
4515 -0.74014541650705767 -0.90936934279297899 5.1291419217465464 10 9 11 1.4750562588369895 24 57 23 370 19 72
4514 -0.91884945779571203 -0.8796433407495764 4.7805406309707266 57 40 30 1.1859546866135149 46 132 47 255 23 367 30 571
4510 -1.55562901669608 2.0616202202113425 4.816628266100599 166 55 75 0.86880520391356331 25 306 23 314 12 224 22 273
4509 -2.6690070895828284 2.825633645169177 7.4733831430987454 148 91 91 2.0171473514861571 67 274 23 309
4507 -1.5085531143934663 1.6449936846840127 4.9262326895517727 47 47 47 0.75611137294903885 28 235 30 208 23 282
4505 -0.94906062015006754 0.23497866559332117 4.6644698413864818 169 102 96 0.44608689000836388 24 222 23 243 16 478 18 257
4503 -0.71059011130357674 -0.084463850180279132 5.4701532958417403 122 64 42 1.5653944387258496 24 205 23 232 20 199 16 257 17 247 18 242
4501 -0.87114525217378846 -0.27937408031326422 4.7683847852868668 44 19 17 0.17688637245604114 25 182 23 202 12 125
4500 -1.3569847904669738 -0.3115434740125208 4.6974783516888152 184 146 117 2.0693358689291048 24 365 23 196 22 158
4499 -1.1759406807301254 -0.40992259116860175 4.6154040876543005 80 49 32 1.0825727355329005 66 116 23 181
4498 -0.7664422884003651 -0.7381734417020368 5.0050033377706917 160 116 91 1.224073901458931 24 90 23 97 12 271 22 87 13 116 21 72 14 314 16 104 17 117
4496 -1.1992134295217334 -1.206082960558142 5.1413726623197764 255 254 254 1.2361897293145157 65 459 64 403 62 381
4495 -0.72765402396486722 0.72754955632955498 5.5666680687807935 163 125 105 1.1893894780187404 9 426 64 312
4494 -1.1856948328635468 1.1851240335408066 4.824477282052392 25 11 3 3.8496181539755874 7 764 64 164
4492 -0.82224932578198684 0.66212770833341628 5.7016286402322258 22 9 8 1.9999574321482305 30 679 28 616 27 438 29 412 31 278 44 574 66 399 67 356 46 252 48 302 63 255
4490 -0.6306134455366863 -0.03763929194927642 5.4325742545126046 184 133 106 1.1648649674335247 50 578 25 783 64 424 28 826 30 777 46 354 45 773 47 494 66 469 67 540 63 445 62 420
4489 -0.68614717006556292 -0.75622302396533081 5.1663217109747102 18 12 17 1.1933790757924754 30 422 29 515 28 581 46 141 47 262 67 92 48 283 66 331 64 278 50 31 65 248 63 51
4488 -0.82334715363617073 -0.92281601857207418 4.8185484541206636 18 13 13 1.7372208766343291 15 10 1 206 9 688 64 262 10 471 49 223 48 194 63 196
4487 -1.8074546962932656 -0.24835298657029856 5.1305894789199415 106 59 42 1.4296762604759266 49 463 30 668 29 697 28 738 27 595 45 736 31 255 46 307 47 451 67 534 48 380 66 466 1 511 65 473 64 396 63 417
4486 -1.2621654255621291 -0.89203627607236879 4.9431426139145982 135 94 74 1.5236810946321571 64 268 67 492 66 419 40 861 63 206
4485 -0.91291184471101106 -0.066377869424433092 4.6517309735388821 176 118 88 1.1340815667415978 31 267 47 407 64 300 49 109 67 463 66 347
4484 -1.1340455286758637 0.21950720976517735 4.6406333791377117 67 24 13 1.5520035229669598 8 123 51 140 4 207 2 224 3 629 70 622 9 123 30 174 69 456 45 496 50 124 64 241
4483 -1.2578931587640121 -0.84107948195755478 5.5067731686694241 0 0 0 1.307963556203062 10 864 25 870 50 700 9 1021 46 533 55 1242
4479 -0.82276104953898854 0.48827448687225505 5.08815665259963 132 90 66 2.4157771841679438 49 632 50 689 64 480 62 459
4478 -1.6850249508835877 -0.053373734040369644 4.9734222875063852 0 0 0 2.7781003317531474 50 676 65 574
4476 -1.1147811235468581 0.65755910134329942 4.999363913668855 110 69 47 1.2058943627707668 64 466 61 386 62 448
4473 -0.69431999361077079 -0.93754596512099608 5.1127916502768391 31 26 23 1.4681011252212544 8 954 64 446
4471 -0.81127057798239466 -1.0765781216098333 5.281513260190505 35 30 26 0.91631843629874765 65 488 64 433
4470 -0.8897536282401185 -1.0950543522591727 5.0472029636905367 26 22 19 0.82963298849557698 65 515 64 431 63 427
4469 -0.61554142207037077 -0.27415065846804576 5.4460558866931974 152 95 78 0.8030962475965826 50 575 64 413 63 435 62 392 61 330
4468 -0.58517962440979066 -0.57260893768154386 5.3290966104592883 40 31 28 0.34369524508655064 66 491 64 412
4467 -0.8352145242748058 -1.1177870750766696 5.0646850871979003 248 248 248 2.045171883350656 67 589 64 405 66 511
4464 -0.77671826227658025 -1.0528175035963254 5.0126355564504257 251 250 248 0.55812450347097187 65 365 64 386
4462 -0.78166234885339181 -0.26880442985837483 4.7962587373652257 0 0 0 1.0792465513604343 26 606 33 674 7 742
4461 -1.1529736055688709 -0.83164709167994577 4.8167178421688615 121 86 67 0.83746653517637837 48 319 50 444 64 362
4460 -0.70292007129076373 0.90794369018182575 5.3884835002282427 172 136 110 2.2196228035721051 45 609 62 324
4458 -0.85536038476324894 -0.9911512171793303 4.8589886016171349 50 44 44 1.211163878963847 49 389 64 313
4456 -0.65272912306887376 -0.59807243219847106 5.0248032621959391 0 0 0 1.7940447137246069 8 435 50 279
4454 -1.402891410034532 -1.0345728000298016 4.8306571848750446 253 253 251 1.9648559620015114 11 551 64 259 12 537
4452 -1.71591231551635 -0.028253383355638817 5.1075841437577383 153 120 101 0.50958543902904863 65 152 64 231 63 152
4451 -0.65287352882859162 -0.2963123939699025 5.2351029613286686 174 142 126 1.9794105246716593 28 460 29 620 64 220
4450 -1.3394818956620946 -0.4432553043173415 4.6002282925171736 116 94 80 0.80197936510743917 24 451 64 202
4449 -0.72123286329098724 -0.48901395145016596 4.8309910500463786 176 131 103 0.99595618065731328 10 560 66 332 64 201
4448 -1.642042197652561 -0.64902114900363406 4.904765435248164 18 16 19 1.5150775387929003 10 346 64 195 63 274 62 251 61 174
4447 -0.73411840299981301 -0.64842484828831093 4.7891446166582128 176 134 100 0.15929017812794449 49 235 64 193
4446 -0.75165344580708127 -0.73078567482486168 5.1412698632780272 149 119 97 0.81073493634143379 45 441 64 192 20 118 16 126
4445 -0.7475942562760044 -0.92902567727157126 5.0998781304591461 50 45 43 0.88580156989772085 50 271 65 324 64 179 67 433
4444 -0.99487387888554191 -0.89816333488132549 4.9481236081945275 123 87 72 1.3720217955002516 45 569 64 178
4442 -1.3532365398426087 -0.92376082391403935 4.7523521284061463 56 52 53 0.69423833158891712 49 7 65 226 64 175
4440 -1.6346015450555902 1.0170279270321871 5.2125580720453479 177 143 131 2.3407445768469608 64 151 61 97
4438 -1.0676447901259964 0.240521671868899 4.5790157581294775 192 120 112 0.064141739850298099 65 300 64 139
4437 -0.8571996612756001 0.056279922301096998 4.7018931833653195 179 125 91 1.8337867849994338 45 492 64 128 63 154 35 268
4436 -1.4420597666213835 -0.42893738733737319 4.6366895266862658 149 111 89 0.95397707029301237 27 107 64 86 63 89 62 257 66 112
4435 -0.8936626857251424 -0.45314422814060762 4.689106020166065 80 49 30 0.60561205403125629 67 140 64 84 13 186
4434 -0.70872567668433517 -0.7103812601262891 5.1051084135783986 29 12 8 0.40213053467175291 65 72 67 96 64 58
4433 -1.1012335991292344 -0.81217388807185964 4.7119319998766471 117 83 74 0.37241345912222634 66 50 64 36
4432 -0.76985698135477687 -0.89017949892312009 4.9413575035271355 47 43 44 0.36495394785403423 65 37 64 30 67 56
4431 -0.63688826609840377 0.82271681930697438 5.7410859577898607 21 21 17 1.6576842055070378 8 1036 1 747 45 936 15 559 46 521 65 579 32 874 11 763
4430 -0.66875654057935341 -0.18831075661981134 5.5084735746380256 182 125 98 1.5641535716749559 49 349 50 304 30 593 29 533 28 600 27 426 10 375 45 479 47 287 48 241 25 652 11 574 24 527 64 107 23 630 63 296 62 311
4428 -1.1915319127190009 2.0644823618535204 4.9076408577284489 24 8 2 1.2860522322154506 8 697 15 280 27 630 15 208 29 443 45 701 31 205 31 353 32 706 52 860 30 752 25 622 53 783 53 969 24 489 24 606 59 996 55 830 56 675 54 525 57 697 53 505 37 782 39 737 39 836 37 870 36 790 40 793 22 536 22 607 17 521 19 697 20 505
4427 -0.46435790393383974 2.0129638774238163 5.0035710432016147 140 55 58 1.7858092908668277 49 580 50 612 55 1046 54 1019 59 1074 56 952 57 966 27 819 52 923
4426 -1.0542362356235289 2.5426076074968726 4.8961550519515162 142 137 140 1.9019607031918613 33 924 7 1075 15 497 56 1099 57 1122 54 1133 55 1150
4425 -0.54016675662343761 1.9767142193247187 5.0135361161786864 135 92 94 1.4353840999939718 33 167 54 493 59 133 55 505 57 169 56 487 30 255 28 283 10 218 32 341 8 162 27 225 53 159 6 86 44 383 37 315 60 384 39 315 52 180 35 361
4424 -1.2458126099645155 2.3878757443308776 4.8683006882505433 202 199 200 1.7858798540920688 8 921 26 819 7 1065 51 931 15 473 58 960 6 806 68 845 5 1144 4 976 29 822 3 1042 30 922 69 867 28 915 52 987 27 833 53 1064 1 702 54 1102 59 1214 55 1123 56 1072 57 1162 55 1187 37 1083 38 1106 39 1030
4423 -0.89897569217012452 1.9484456396600591 4.9919626185390644 19 18 18 1.8552107097707906 25 819 45 861 52 1003 11 719 55 1106 59 1193 53 1080 60 699 36 958 40 948
4422 -1.1486365617261576 2.5410900462101371 4.8851754475970104 198 196 197 1.7939704565728509 8 945 26 840 33 927 7 1078 51 938 15 494 1 665 58 972 6 888 54 1190 55 1196 56 1149 57 1169
4421 -0.4648053537273043 2.0126055571504882 5.0026301525533787 184 69 78 1.7915302209947193 49 581 27 820 59 1075 53 1046 50 611 52 924 54 1020 56 953 57 967
4417 -1.5926455422069088 2.0535723964413855 4.8208233605792987 21 14 8 1.0297433115830432 54 985 59 1077 55 1001 56 951 52 814 54 943 53 876
4416 -0.92609314070484594 0.15162132153605093 4.809384630078779 72 23 6 1.0342668513007025 52 467 54 84 55 466 56 651 57 668 53 862 54 939 59 988 55 954 60 572 60 614
4414 -1.4768757179995289 2.0718176220126678 4.8297346895610556 151 78 95 1.1981104398746238 29 553 28 630 8 612 26 632 33 622 7 790 15 210 1 364 58 774 6 683 68 461 5 824 69 662 70 562 4 632 29 651 28 702 27 628 9 812 31 304 46 268 32 669 49 483 50 523 25 666 11 591 3 843 24 561 12 571 37 629 30 505 60 590 38 392 45 527 39 328 39 838 36 859 40 714 35 663 34 612 22 534 22 599 21 534 20 493 20 572 16 336 17 333 19 595
4412 -0.74106210366896752 -0.83789671500294827 5.6948608075865144 43 38 38 2.2396035187609051 25 806 24 772 23 804 13 755
4411 -1.8819341971890873 0.76400190955097402 5.3332318463089168 247 247 247 2.8797260138144729 49 426 24 540
4410 -1.4565477762458652 2.078937231783883 4.8101914641696473 37 1 12 0.47593377121885322 31 111 24 275 12 243
4409 -0.96188293317170304 0.51758426870448448 4.6819096051745372 151 110 85 1.6540284683060327 30 604 29 543 28 689 24 536 47 313 48 258 25 540 28 208 50 317 66 359 65 358 67 416 67 220 25 446 66 189 64 248 64 351 46 183 23 445 23 592 63 254 12 566 62 378 22 512
4408 -1.7522069717426176 2.0544348612896872 4.8291586815944445 8 10 10 1.9425222481787425 9 1002 51 1086 58 1109 68 970 69 1057 4 1131 70 954 49 624 50 671 2 1050 3 1197 33 1057
4407 -0.66305856788983375 -0.0019399036868773577 5.3663576294220325 140 105 88 1.8096245068457624 25 656 49 418 24 633 29 409 28 475 27 541 30 596 10 581 46 64 48 299 11 581 23 677 61 288
4406 -1.0008922459151637 -0.28240487816151977 4.6472886324313434 193 138 101 1.3710595942615549 25 850 11 756 24 778 44 723 47 597
4405 -1.276177730704817 -0.74425486367610105 5.5619998028931663 0 0 0 0.4930753045082179 5 1320 6 1008
4400 -1.7344096579658836 2.0666897232040027 4.7672130345204078 26 20 18 1.8407550354324134 50 692 24 793 22 833
4397 -1.4646854773637505 0.62182381277159415 4.909069363450639 255 255 255 1.9802774208500895 11 752 24 781
4396 -0.81650099117627328 0.40613467671499054 5.3200337424719182 132 90 66 0.81280136226464605 24 780 23 814 11 758
4393 -1.4525521467960505 0.56559291307550352 5.0906266041141848 0 0 0 2.1136044226530304 11 717 25 837
4391 -0.27767282785899788 1.9328976678972341 5.2186892550175212 182 78 74 1.4073586703547831 47 558 24 754
4389 -0.84163662629050184 -0.44876524626737252 4.7285223387638631 57 24 19 1.2820982073482083 30 875 24 723 23 735 12 674 22 745 13 714 20 760 14 645 16 811 17 825 19 938 18 874
4388 -0.83616103188060042 -0.44868704856374253 4.7261351143503951 57 24 19 1.5521932501528077 30 876 24 722 23 734 12 673 22 744 13 713 21 756 20 759 14 644 16 810 17 824 19 937 18 873 43 251
4387 -0.82157996307723768 2.0524949015394558 5.0376061433844503 174 52 54 0.98939050974603504 44 652 24 715
4386 -1.6025929243341301 2.1618420921437593 4.740754667172272 166 49 51 1.7134437538381313 11 681 32 803 46 439 24 713 23 761
4385 -0.67851121159168737 -0.60462127976354063 5.1981154276073207 35 24 21 0.45954496659017041 25 755 24 689 23 766 12 671
4383 -1.4497889952766123 2.1508098451934146 4.8145343966489564 167 62 63 1.4814999268936653 46 441 24 683
4381 -1.5218437769157791 0.52079993438012595 5.0797979522020338 123 89 67 0.6117504620465668 11 585 24 671
4380 -0.98390208946022228 0.040595492998882855 4.631852769245663 201 141 117 1.5132614712477854 11 643 12 655 23 703 22 711 13 700 21 717 20 681 61 347 14 628 16 785 17 790 19 878 18 806
4379 -0.71040223459036067 -0.15245383020090586 5.4656121159410374 194 143 112 1.2432056651761216 24 664 23 743 12 648
4377 -1.3558111605925502 -1.0788499631330259 4.9123745417556091 26 22 21 1.1224452994485774 25 709 24 647 12 601
4375 -0.68487931621700326 -0.18031520287573227 5.6211280903038405 181 121 95 1.5453404468428942 11 576 24 628 23 672 12 558
4374 -1.1552947782498642 -0.74010968770153052 4.7749878208754604 179 120 90 2.106549276707872 24 614 23 690 12 607 19 119
4373 -0.30755805573397199 1.8901654021551344 5.185431329134202 0 0 0 0.80897345223644734 10 655 11 533
4372 -0.30018160354198431 1.8383610662428806 5.0870194541435056 144 74 85 0.59570501678978993 10 590 36 572
4371 -0.31980185560627061 1.8738405687459276 5.19811940532405 0 0 0 1.3387495836740593 10 591 11 531
4369 -0.88586682329366995 -0.85816812146036459 4.8827805960180184 52 31 26 0.73962311027774919 25 633 47 339 24 569
4365 -0.5632974008767766 -0.13788977312326858 5.4730092829377082 172 126 102 0.52326675952368973 11 508 24 528
4363 -1.1097389167514147 -0.73979657257101539 4.6075967277728012 116 70 47 2.0788067275610866 25 573 24 503 23 496
4362 -1.8460747768022299 2.2395925555787271 4.7658525922697086 136 58 70 1.0238568525986633 32 522 24 492 35 579
4359 -0.6473854582591454 -0.092114515051486587 5.561639749782568 210 150 122 1.3765938972054734 25 201 27 143 24 468 23 517
4358 -1.1132737892684843 -0.70434893141051569 4.6802845719269168 101 50 19 1.2322990282661399 25 575 46 143 24 443 12 459
4356 -0.84656341673260749 1.9055836262058412 5.0333112172430159 121 80 88 1.2388665279407525 27 445 24 406 39 271
4355 -0.89449098836229701 1.9137856148237642 5.0312401753491773 169 56 60 0.44300552977652363 67 265 24 405
4354 -1.7926018980771983 1.9534674126115072 4.7814269996210275 139 53 54 1.6158138471164176 32 494 24 400 38 320 34 443 31 191
4353 -1.7049249496047785 1.9287094684247681 4.8066684556242683 27 10 9 0.81040046908492558 29 424 24 399
4352 -0.78261655584320566 -0.20527064495938985 4.9891986230268834 165 109 76 2.1118195568838427 24 380 60 245 53 67
4351 -1.3273622882147651 -0.26387175866366885 4.6662855229309326 162 137 130 1.2462831235047318 11 118 24 376 63 232 49 96
4350 -0.75637550147456056 -0.27634850491541763 4.8281577519734835 173 121 100 0.16475024431909793 66 276 24 372
4348 -0.53431408641945288 -0.66858471082816184 5.0477247677775319 61 59 62 0.16869101247662255 11 69 24 334
4345 -0.3129997776790433 1.9353609508930403 5.2411665770217013 187 88 90 1.7104395111007324 25 305 24 282
4343 -0.8815152063119962 1.944192212350589 5.0299237771526943 38 1 4 1.4672014959188253 32 310 24 258 23 327 30 225 35 331 37 282 34 252 22 535
4342 -0.6585898685920385 1.7733344354134681 4.6607008615420371 150 77 84 2.0300693747179954 44 242 24 251
4340 -0.70085320816672914 -0.098595646381636884 5.5418479316169176 170 114 91 0.81251789762463622 11 130 24 204 12 149
4339 -0.81111837126900821 -0.26787565795165885 4.7960754064073177 145 110 99 0.67662944965961824 25 525 24 178 12 303 18 193
4338 -0.88870702840041993 -0.29078239087297564 4.77813490267184 32 13 11 0.46227555592506553 25 178 24 171 13 233 23 199
4337 -0.87842159181318746 -0.41981566787786734 4.7155294154431795 154 110 85 0.29541370236073056 30 141 24 150 23 406
4336 -0.95963583180410028 -0.63870046314084117 4.7358401064290891 168 122 96 0.68243074054603747 11 67 25 98 24 113 12 280
4335 -0.95738273415440034 -0.63743630400593065 4.7317182535254592 168 122 96 0.76054618546255304 25 97 24 112 23 129 12 279 11 68
4333 -1.209770513557874 -0.70508647206507291 4.6675291380207895 132 82 56 1.4478778822423972 11 51 24 92 12 70
4332 -0.8517093162503383 -0.75662505269442315 4.8910428080675077 159 103 73 0.88930594612594283 25 69 24 80 17 429
4331 -0.74272695125911325 -0.91700288235788086 5.194359694593838 48 44 45 0.36079254444623582 25 41 24 59 12 40
4329 -1.1854852717929614 -1.2091565727491671 5.0285200299085275 255 254 255 0.65491123869710666 52 1032 60 706 62 456
4328 -0.64743438094526751 -0.1671276908892001 5.5488111622029512 174 121 90 1.2947776465342424 11 577 24 627 10 648 23 671
4326 -0.36972158041553582 2.3398940414588298 4.9690271833331847 13 11 12 0.73734550969239121 55 327 53 354
4325 -0.69213922680126372 -0.090649559655074 5.4070373648608863 192 145 119 2.2510014412025581 53 91 54 100 59 75
4323 -0.9170309069772844 2.0440844410992502 4.9624698374378147 30 4 2 1.1463497548256951 52 818 54 945 59 924 55 828 56 880 57 930 53 781 33 615 51 507 58 540 29 556 10 611 27 633 45 621 45 706 26 426 7 481 30 503 28 516 9 480 32 671 25 556 44 457 37 873 60 556 40 599
4322 -1.3074297032024491 2.2336428181395678 4.8515381377064841 124 71 68 0.58917777724041742 8 289 1 150 58 339 30 519 29 456 28 530 27 484 9 561 45 631 52 661 53 699 52 751 54 912 59 870 55 849 57 887 37 388 36 411
4321 -1.7410512781203358 0.027125053457217243 5.2448589467671241 97 64 50 1.5157647938870595 59 1063 54 970 55 1039 56 1056 57 1012 53 755 60 532
4320 -0.74188099359916926 2.3684727086307169 4.9140355519058438 140 138 140 1.2403278791871717 52 986 54 1093 55 1118 56 1068 53 1061 57 1031 59 1127
4318 -0.47908018231024457 1.3827808484387414 5.4562502258403054 29 29 31 0.81022840947735375 59 1303 53 1167
4315 -2.491066393766852 1.142599109163003 5.2402299287304128 32 32 34 1.2492028493362926 55 1217 53 1152
4314 -0.66803087873501077 0.78722033661144886 5.7237587293035732 37 35 38 2.0328486370400731 52 1059 53 1149 60 722
4313 -1.3435637445609714 -0.13066197213782174 4.7700933285631759 202 146 113 1.9419238005413344 52 1065 54 1213 53 1145 60 719
4312 -1.1512924628324031 -0.71537512532862124 4.9321139209424087 191 142 110 1.0270454974977723 52 1064 53 1143 60 718
4310 -2.2982013836229571 0.96974198396850808 5.3362068459783405 24 24 26 0.19458891640236781 54 1195 53 1121
4309 -1.2470953955314215 1.1287790681333179 5.1328836880414448 190 145 114 0.61849020124853982 52 1043 53 1120
4301 -0.99857264211694552 2.4547018716303524 4.9214764677155678 199 197 200 0.56971231224019792 29 772 53 1033 39 919
4300 -1.798731019972724 2.476224396543369 4.7633981251878357 187 187 191 0.022104090336129194 54 1051 53 1027
4298 -1.5176127739490974 2.2088269180137323 4.7862155449463941 16 13 10 0.41727146285761113 55 1005 56 961 53 995
4296 -2.3870278450103939 0.92946068875519672 5.3149716517321517 255 255 255 0.13851420645766066 54 1012 53 986
4295 -0.65242053558299062 -0.094804208544605487 5.5356545893145199 185 129 100 0.31299119858605107 52 918 53 985
4293 -1.3132513749177832 -0.29700500952679482 4.714778258163439 26 7 1 1.6267882151203243 67 606 65 537 66 531 53 978 54 1005 52 964
4292 -0.32089264289576835 2.0111000675985293 5.0151277813620689 0 0 0 0.15721910542451795 50 594 52 899
4291 -0.78264194968567313 2.0462789712927418 4.9072645071588914 179 66 68 1.3214855533673096 52 926 53 967
4290 -0.28629605874972752 1.9836653784486042 5.0094204025958318 0 0 0 2.0512386363932569 50 520 59 1029
4289 -0.28906616195153362 1.9404660027953184 5.1023834509175581 0 0 0 1.3535854912057586 10 732 53 956 60 629
4288 -1.1031453051053783 0.0010456051558024181 4.6806458889593427 190 143 123 0.69515401881863648 55 950 59 981 53 943 52 877 60 640
4287 -1.0107119233099391 0.18454565312420046 4.7140856402212519 194 128 114 0.71212224765266585 55 899 53 915 60 612
4286 -0.84849040526524822 -0.51725165322023958 5.1102966322654826 0 0 0 2.0371658504818244 25 716 52 844
4283 -0.86612944260258173 -0.4575842097627037 4.8248769745094844 187 141 125 0.67581729494548259 54 780 53 844 60 512
4282 -0.58376020315191213 2.3393162641435912 4.9626104717839201 196 192 193 0.88295569080455161 27 571 29 582 53 823
4281 -0.58376020315191213 2.3393162641435912 4.9626104717839201 196 192 193 0.88295569080455161 27 572 29 581 53 822
4280 -1.5809618653836317 2.377979578690244 4.7669595976454975 203 203 205 1.0918708074421923 30 539 53 818
4279 -1.1771759373769652 2.2567595372810922 4.8835901108889574 136 59 67 0.36785573030157398 54 848 59 953 53 812
4276 -0.59835954749788456 -0.17889602825198672 5.5476136090042854 252 251 247 1.3909696383433818 27 598 53 752 62 398
4274 -0.96732759907010024 -0.64041341296499055 4.9588910279684617 0 0 0 1.3682073852205345 54 657 59 663
4272 -1.3603621862278719 2.2719247182384632 4.8214886075122614 43 2 1 0.26565919751657097 52 578 54 747 53 706
4271 -1.8720453337572751 2.2008644382214899 4.7783002422203635 40 8 14 0.5860007251043956 54 565 55 566 53 695
4270 -0.32613594524510098 1.9877929457043426 5.089708378888421 181 81 93 0.99154753045937249 10 523 54 519 53 677
4269 -1.670606091018795 2.0459249998485345 4.7863926594737052 121 68 76 0.15476145065718619 54 697 53 668
4268 -1.7027826322393 1.9975911677180449 4.7802864370810205 145 59 80 1.2386341717854086 25 549 11 453 24 480 12 429 53 663
4266 -0.65766331383969323 -0.25655837699270095 5.466397000198822 110 52 32 1.0854934782504178 52 628 53 648 61 241
4265 -1.7219931369437593 -0.72356944483389518 5.1484413122370389 0 0 0 0.98370374607674238 52 696 59 450
4264 -0.25629329389079458 2.2494940535651238 4.9933177921752216 68 0 0 1.3064640414592661 52 361 59 602 53 596
4263 -0.97312912699535192 2.2324959317768487 4.9238489740616522 157 56 65 0.13958253877516333 55 306 53 584
4261 -0.91930884398824397 2.0037722214057569 4.9409305936444117 24 0 0 0.26938796179022922 52 186 53 480 60 308
4259 -1.046822771523368 -0.12192665560246374 4.6189104353028387 240 188 169 0.74756695676577256 54 38 55 31 53 418 60 520 59 890
4258 -0.91627375649151976 2.3276040378802558 5.0926143871080294 4 3 5 0.28855359779969258 57 629 53 370
4257 -0.87743661597421574 2.3994111271456617 4.8907460095179012 4 3 5 0.10479776474515178 54 353 53 369
4254 -1.2770123931852981 2.2460092689298481 4.8574517874583645 37 5 8 0.30844125990372362 57 311 53 316
4253 -0.82223850256944897 2.0730085677711783 5.0988544685495816 0 0 0 0.09485267033265514 27 251 54 260
4252 -1.1797171303534117 2.0290446250804943 4.9011558087182712 163 75 73 0.15716486206913649 49 296 53 186
4250 -1.4998745227713166 2.0448276492706925 4.7624321470725759 28 10 10 0.51083071693367688 30 267 53 152
4249 -1.5935996341917709 2.009042050800987 4.8065560434947896 40 1 1 0.10529979128691069 59 502 53 146
4248 -1.6678525806447044 2.0261023869534056 4.6780609105236355 174 68 80 0.409532095250977 53 137 60 141
4244 -1.0665991925383165 0.05928583578237067 4.8647904463598701 199 127 115 1.7687314027653951 67 342 53 75
4243 -1.1044238908137018 0.17310944430378072 4.6800109831977057 74 18 14 1.0822413871265155 54 76 53 71
4242 -0.6585466167303532 -0.4916840612715237 5.2829552924688237 26 19 13 1.4143114723999013 56 70 53 64
4241 -0.81757783118010952 -0.33494954201721872 4.9132659297780483 175 124 106 0.21031114050297106 54 54 53 53
4238 -1.2150530275699669 0.094249497821323552 4.6935438818324533 158 116 92 0.59282302763819228 52 804 57 778 53 859
4237 -0.91953543695010131 1.9873661565559362 4.9683715988329853 18 17 14 1.6040216594713794 10 689 46 370 49 481 10 596 29 646 45 697 54 813 59 842 55 696 55 915 57 879 59 993 56 916 60 482 60 585 50 558 40 580
4236 -1.2016014728066613 2.4672529822969942 4.8866988535464602 193 190 191 1.7148037971974064 26 988 33 1080 51 1104 7 1198 15 615 15 627 56 1188 57 1207 54 1229 55 1236 8 1069
4235 -1.5334041166304258 2.2407176330602403 4.7783986914810264 120 78 85 1.5542772374192415 8 530 33 340 7 579 51 564 15 119 31 219 57 716 54 831 59 939 55 845 56 797 57 815 53 801 37 415 38 463 36 627 40 639 68 590 6 640
4234 -0.96812579109657526 -0.31450894244164618 4.824694798721981 53 12 3 0.77349057477212302 55 659 56 641 57 438 54 45 59 437 56 37
4233 -1.0397991998150971 2.2456876118761588 4.9311993595065644 76 40 47 1.1385156709930369 55 868 56 826 8 284 29 469 57 830 53 814 52 670 38 445 36 419 37 389 40 418
4231 -1.8963936126857412 0.66728076757214949 5.1266357504629587 255 255 255 0.32251708796536993 55 1239 57 1213
4229 -0.72417440385157483 0.81311824384163545 5.4868050916566826 255 255 255 1.3803688072216147 55 1159 56 1057 57 1131
